# 3D point list with one line of data per point:
#   POINT3D_ID, X, Y, Z, R, G, B, ERROR, TRACK[] as (IMAGE_ID, POINT2D_IDX)
# Number of points: 392, mean track length: 3.5692856489527118
12406 -9.4943522057588812 0.92065286698822335 5.5303864107863037 65 76 76 2.3038674512168438 3 10381 39 5442 44 7417 46 7591
13793 -13.192482240426152 7.1764187952177929 0.41178909676506803 226 226 228 1.3245654519974459 44 3618 33 6508 38 12079 24 5770
12407 -10.257013743780931 0.1815989490470363 7.8011298511718392 195 191 190 1.4791758285849281 25 3201 39 5452 44 7446 46 7573 33 2976
16358 1.1253025292254972 1.3730239653161209 1.7049953123089465 22 32 8 1.6627899096899821 29 3978 4 2399 10 3495
12408 -9.2473623110676648 -0.72479246844084166 8.4185729171383219 222 216 216 1.2005022744763711 25 3243 39 5504 44 7409 46 7542 33 2471
15851 -13.930699256170401 6.4394813360705117 0.83622511072929517 72 73 77 0.54006044941529863 8 649 23 871 29 716
12409 -9.5011583670225779 -0.63813114422976414 8.4211364840107503 54 70 66 1.5897787402944921 25 2069 39 5506 46 7530
13288 -1.9051018594567775 3.8797427580945887 0.52849893721313157 31 43 21 1.5208085253343542 39 1798 44 4162 46 2148
12411 -7.2084412857995828 -2.4522371686743232 10.628383097920228 222 226 227 0.46013396302310933 27 5430 39 5535 44 7462
14314 -19.820306580516263 1.4724673848142635 5.8309499701526395 150 157 165 0.67372940414346105 44 4875 38 4841 39 3183
12412 -9.2330911337238764 -0.96288135171343225 8.2903500795778324 175 136 141 0.88458867453327117 25 5074 39 5558 44 7359 46 7483
13807 -3.3454798307967972 5.8748781149346581 0.35248659496286744 211 182 161 1.3387831673496764 44 5742 46 4504 33 9188
12413 -10.318753341934089 0.028138905465957462 6.5704155183411208 38 53 60 1.0673530106667812 3 4951 39 5574 44 7299
13292 -3.1821637209032625 5.3347378119967468 0.51196803567786786 64 87 33 0.73203179042591426 39 2841 44 4214 46 2647
12414 -7.4046444343393034 -3.2046692616155834 11.76452683563274 164 119 122 0.3251431175086078 27 5184 39 5582
13801 1.5662862557644812 2.1321126434648701 1.2187394649764223 29 51 30 0.65200127420924303 39 1658 44 1512 46 3941
12416 -8.4692464060619166 -4.1725551296588526 14.378096461820137 93 93 102 0.52636000834266072 39 5600 44 7411
12417 -9.3497162242924183 -1.1736924071806432 8.2773744984109534 188 149 144 1.5034500408565057 3 6366 25 6127 39 5611 44 7310 46 7437 2 5169
13590 -9.8067732713638645 0.54553560990113514 7.4074518652213239 61 78 70 1.0021913288438753 39 5383 44 7506 46 7651
12418 -14.137332115102266 1.6539570226809004 5.0787071033502986 59 80 75 1.1694629143830217 27 5429 39 5620 44 7215 7 5515
14099 0.46126996549136895 1.9353995690761931 0.54757527521789529 241 186 211 0.88194300492902833 8 5515 27 3715 33 9903 4 6077 32 8944 10 9761
12420 -8.8053501940363468 -4.4244709516341292 14.454939309910266 180 176 177 1.2141316406731844 27 1657 39 5656 44 3364
13077 -1.2142458580064874 3.696456680476301 0.33918411273019289 75 91 52 1.3551292420367627 39 1748 44 2862 46 6093
12422 -11.265676815215643 -1.1214999765694893 8.6021457258829681 221 216 210 1.0602328724525263 25 3290 39 5682 44 7245 46 7320
16151 1.5510563420701449 1.4758342278588699 1.5160820434850137 72 89 44 1.656720271734587 23 699 29 754 4 815 37 2312
12423 -8.9546542057173308 -2.9177370460747585 10.925816497841565 204 198 176 0.84150116162096378 27 3129 39 5712 44 7290
13588 -9.22421670641722 1.58986040742301 4.8032975104518352 196 192 191 0.80646103052090234 39 5339 44 7497 46 7691
12424 -13.533048633716211 -0.067275235845214554 7.3031447458950796 104 115 100 0.92473837495067768 3 4960 39 5729 44 7183
13081 1.4320235425668877 0.97826434813837859 2.6421642646793733 71 95 59 0.91462326994999488 39 2702 44 2886 46 4179
12425 -9.1551446362599265 -3.102648701389386 10.840444544629671 230 229 224 1.8816996370300174 25 3373 39 5754 44 7246
13598 -7.4035059341394387 -3.2459069614135418 13.227750168346301 47 50 64 0.63432407788124856 39 10382 44 7532 46 7641
12426 -11.104242538952317 -1.472261202399449 8.4048589427176079 218 213 207 1.2239375861556729 3 4802 39 5773 2 5759
12427 -8.5711351707254515 -5.0018947792173893 14.255477854436815 175 155 157 0.3807115314059642 27 5124 39 5778 44 7277 46 7332
15640 0.28391074385780352 1.944113308642802 0.35535535994899475 210 149 163 0.33794650036554413 8 4677 23 6186 29 6310
12428 -9.1780090474680982 -5.8043846151251222 16.173432233258744 63 73 83 0.76107876348247938 27 5146 39 5781 44 7280
13085 1.5126553112695433 1.0449104349622143 2.6799009879088249 40 50 39 0.84021987011668831 39 2719 44 2911 46 4380
12429 -8.812917169092163 -4.9631960196016491 14.260768580393737 161 146 149 0.4872203667605613 27 3123 39 5782 44 3310 46 3370
15634 -9.4539569360297726 10.841037305635798 -3.4936711489546028 52 53 45 0.34453786570815015 8 5937 23 6112 29 6214
12431 -9.8550902396837987 -2.4867138720580297 9.6118390900002684 147 147 157 0.43626610456285797 27 5044 39 5796 44 7194
13596 -6.9721470423898175 -4.4816486784948939 15.175660481598271 74 84 85 0.94719519005278363 39 5528 44 7523 46 7604
12432 -20.190861744747622 2.0199271301452142 5.872578543203697 77 90 107 0.77350720787807348 27 8904 39 5800 44 6622
13153 -5.6370188989154864 -1.4615022218947371 7.8093754146309813 190 110 139 1.0409704385277558 39 3403 44 3435 46 1687
12433 -9.2636690203644125 -2.6332876449126772 9.5736046398428343 229 229 229 0.49561361196500381 27 5041 39 5802 44 7200 46 3352
13670 -4.6075679869170605 3.1305101939235356 2.1400119648228402 35 50 36 1.8252637884292753 39 7888 44 8067 46 8466 33 7765
12434 -9.1466426750989953 -2.7111182035963082 9.6372321916460617 232 226 230 0.42074753430933381 27 5042 39 5805 44 7201 46 7297
14179 -11.364304828700735 10.183287958201532 -3.8697538062530312 172 131 129 0.93140189307921173 8 659 38 1490 2 836 23 1382 29 907 4 1150 37 1597
12435 -9.6069134064202384 -4.024541327437654 12.518105742000847 57 76 78 1.0641678423286829 27 5086 39 5812 44 7229
12436 -11.471312094725002 -1.5746677145951873 8.1732917371430442 220 216 212 0.47943146167707174 3 2323 39 5852 44 7118 2 5034
13157 -7.0891616639241652 -5.0887044970851951 16.309123298266488 92 110 97 1.0171669383209014 39 5548 44 3443 46 3525
12438 -15.039208070047909 -1.1364695343642612 8.6324033857100027 217 216 214 1.4614458803833499 3 2366 39 5884
16231 -6.2304966061203615 14.344924077077829 -7.8799184470992794 71 76 82 0.21513796448690961 23 1326 29 1372 4 1386
12439 -16.676913814532021 -0.31622831182708944 7.7233291541841824 76 83 101 0.35980094991493278 27 5268 39 5889 44 7030
13668 -1.890002830480997 1.6719270793846386 1.5657439810342315 102 122 71 1.9460726968888025 39 7948 44 8061 46 4891
12440 -11.293547669973414 -4.366546029482631 12.426635144552543 211 210 207 0.13937304662218911 27 5007 39 5938 44 7081
13161 -5.4409891834974324 -1.1769532070744191 7.4427653195198529 178 108 136 1.4584048889007819 39 3429 44 3454 46 3633
12441 -11.744522219043201 -2.1358366394827386 8.3376556016131982 103 105 118 0.87335475406317797 25 4883 27 6130 39 5941 44 7016
13678 -5.4090148311646038 4.0100661131106712 1.4799836548467984 55 73 61 1.2386782698718666 39 3980 44 8103 46 8496
12442 -10.287775880484558 -6.9443795365718373 16.817003784555361 221 215 219 0.39844113330887715 27 5063 39 5943 44 7131
14187 -16.562205231835389 10.605823371423231 -4.3085608986685022 121 117 125 1.2295805836537181 8 1737 38 1580 2 994 4 1803 37 1653
12443 -13.692904144447866 -1.3572674269414575 7.6461102422267659 156 127 148 0.52487844978407228 5 3935 39 5946 44 6984
15720 -49.504452211194724 16.848622060752131 -14.106994555513699 160 156 155 0.76581105212278178 2 4786 8 7385 23 7850 29 7897 10 7355
12444 -18.03720156760922 -1.0464289117161749 8.8362214665994916 221 216 210 0.86406736889155489 5 5525 39 5953 44 6958
13165 -8.4984549871928241 1.2431929975237275 5.4692433884224423 98 103 107 0.90605858080456025 39 2383 44 3468 46 3626
12445 -11.622342712413277 -2.3762867496381772 8.5686150787865216 223 219 217 0.48934252067726391 25 5850 39 5957 44 7005 27 6109
15714 -29.245431742348007 11.888670362343959 -10.568213606411781 147 139 137 0.57614183116164575 2 8225 8 7356 23 7828 12 8181
12446 -11.583249443473788 -5.0155557058523694 13.359657471033506 69 88 94 0.32899150460009924 27 4999 39 5975 44 7058
12447 -12.275007243328041 -4.3454357715353682 11.898174854665779 174 145 150 0.95042608682856144 27 10149 39 6026 44 6982
13676 -5.2856157325764324 3.6311129627188543 2.1496338409608189 18 35 25 0.82781596114798772 39 3947 44 8092 46 8464
12448 -13.71672635339754 -1.9002090818107849 7.9057816012813857 78 86 105 1.5357728568881559 27 6005 39 6037 44 6907
13105 1.3491992786848164 2.1742891064314569 1.0020908518927212 37 44 36 1.2298564361479276 39 2958 44 3045 46 6623
12449 -7.5226588759007518 3.6767572722872131 2.3565767618574185 77 98 84 0.57947440483143375 27 8258 39 6041 33 11650
13264 -0.36006154202337437 0.19795846315291668 6.3913645606998903 32 38 38 1.4352599465596452 39 3945 44 4011 46 5564
13622 -6.4825760937851546 2.2844803997749139 3.3594647494828456 32 44 39 1.3206705953362043 39 3674 44 7726 46 8016
12450 -12.264518376873413 -6.922578989523168 16.336550485100105 101 116 123 0.62517303437875504 27 4992 39 6056 44 7004
14131 -0.023652946467385336 1.7420621201176052 1.779051797710028 0 0 0 1.4654919320906097 7 5260 8 2627
15837 -11.811530635498231 10.194232295640465 -4.1068521531863729 215 215 207 2.3853479032018154 8 130 29 188 37 125
12452 -15.6523006327646 -1.7270391648405776 8.0447695151676193 218 214 211 0.16041311441970696 3 6150 39 6077 44 6868
13109 1.4066375820366379 2.3218423852359411 0.7178329944402837 59 87 39 1.36333151308129 39 1628 44 3091 46 3959
13783 -13.502326090533693 4.4854159495633787 2.8778223090809911 230 226 217 1.131884141601307 39 3561 44 7515 46 3578 38 3429
12453 -12.516487206640191 -7.2031732101957031 16.715383540880239 113 116 132 0.79892849401775601 27 4978 39 6083 44 6986
13268 -1.9988928576204894 3.0822313314191181 1.0276998667125452 87 115 75 1.4906774634078339 39 2655 44 4031 46 2059
12454 -0.34584956645393994 2.6324244853378018 0.51622127887461644 186 194 197 0.97861580415881555 3 1757 5 2680 39 6154
13777 -4.4588418798510512 3.7548222802119584 1.6659094636338552 182 156 133 0.60611376656113514 39 7672 46 3214
16183 0.94421515329867589 0.99172555221012859 2.3026517919522189 34 43 24 1.2773217546758326 23 2638 29 2726 4 1148
12455 0.25916447920117763 1.7196422145016721 1.8232854493451933 181 167 158 0.77749807539484583 27 6899 39 6261 33 4074
13620 -3.5463792535002918 -2.1917720152161375 9.5713890005745057 35 35 47 0.030814867995556491 39 10575 44 7700
16342 1.0883253324572693 1.4051537374107705 1.8222006905114108 129 117 100 1.9140554573912223 23 3245 29 2670 4 2130
12456 1.1065239698222678 2.5079641156654389 0.59040420810162031 7 11 10 0.69983612394317263 5 1334 39 6266 44 6304
13113 -8.837792887841335 1.2291283665877668 5.1015648775926392 189 225 247 0.38884102022976291 39 2210 44 3101 46 2845
15835 -4.2907009150872488 8.3327408402701302 1.6499788125847483 40 49 18 1.8670960851923148 8 11076 29 133
12457 1.3815976792621805 2.3021674888801376 0.84087219266932522 96 122 48 1.0738462488904952 5 2337 39 6278 44 6385
13272 -4.6172088674602163 5.3162707515627323 1.0086113149397231 78 91 58 0.60483097076055847 39 2710 44 4062 46 5246
13630 -7.7711771050614891 3.7190061838307371 2.2765997813953467 35 47 41 0.7102807779117386 39 3757 44 7781 46 3887
12458 1.372133862874978 2.2411089781697906 0.91011892690865837 58 92 32 1.1319216710583726 5 1158 39 6344 44 6338
14139 -8.124966989026726 2.6615284558975807 3.6088144995906148 78 105 68 1.5252786537578653 33 155 38 282
12459 0.51066419453633216 2.7774836487462218 0.75264662707582131 19 18 23 1.8577709944914529 25 2707 39 6473 44 6072
14298 -0.77667487759658627 0.60652675995660943 2.0313070098458796 40 52 41 2.6241036718139128 33 7376 38 4344
15672 -0.20939398511984261 2.2586058464213652 1.0907776745976721 114 101 82 0.81787845548902049 8 2701 23 6615 29 6732 4 5029
12460 1.7385458962309974 1.6118248890358458 1.653340910676103 84 117 39 1.8315605310454182 27 2502 39 6634 44 4502
13117 -10.941561373552114 -2.1266517341902653 8.1252038477462456 147 149 162 0.42664630181616514 25 5863 2 4979
13791 -11.115965620725017 4.7224321783515926 2.0558658331313406 187 103 139 0.16251007109978646 44 3547 46 3716 33 2464
12461 1.6714733167547744 1.6008202657950972 1.6691267442304885 26 41 24 0.59526246283053308 27 1697 39 6676 44 6162
13276 -0.20404264378321124 1.8300762508355768 1.4108838513675688 149 128 123 1.31371158046628 5 659 39 4742 44 4086 46 5898
15666 0.37048833472570658 1.9394518642426981 0.79974223089165675 174 96 109 0.37819213497433379 8 5063 23 6517 29 6645 4 5410 32 8856 10 5536
12463 0.98913771160593578 1.9481687164244621 1.5682864740426912 151 136 139 0.12388167512543802 27 2358 39 6783 44 5962
13628 -4.0455511403022149 -2.7493163624893908 12.129694956809582 119 88 91 0.68306417152336341 39 5283 44 7765 46 7930
12464 -6.8730223954912404 3.2558281706599632 2.5913915429167313 77 100 82 0.87933831489326919 5 5023 27 8252 39 6840 33 6766 38 8815
13057 -2.9646966509885404 4.2544822188495628 0.8880846371880784 75 88 58 0.59400906977826684 39 1838 44 2757 46 5774
12465 0.50256820055378071 2.1210020660387596 1.3142735821597815 200 183 173 0.68937457128680335 27 4026 39 6918 44 5796 33 3587 38 5536 23 3914 29 3717 32 4817
13574 -6.847749020603124 -4.2818635874081874 13.65217708881565 136 82 109 0.26923161732965922 39 5596 44 7442 46 7533
12466 0.68374340166884517 1.890685932369649 1.6371390363957874 183 171 171 0.31857625847107818 44 5789 33 2150 39 6980 38 4773
14083 -5.3421162393071242 6.9552080756886348 -0.37392284881623672 96 126 74 1.9452557617333441 46 2092 33 7427 38 8288
12468 0.31048369051107472 2.0401875367181912 0.29976784438653947 243 202 220 0.20573887593734452 27 3653 39 7024 44 5534
13061 0.88673202967015929 0.95265377837019838 2.0028623937593784 71 93 55 1.6915664845521736 27 2099 39 2623 44 2772
12470 0.54375260065885389 1.8521504259053116 1.6563497720264573 187 173 167 0.22167091562293137 25 6973 39 7081 44 5701
16135 0.54959135374403267 2.1319273124655442 0.85428215844159106 29 27 28 0.88427703824909376 23 2058 29 1262 4 719
12472 0.55688347303695984 1.7994751924417507 1.7212872602563924 188 169 155 0.64156939791444534 3 6856 5 5897 39 7117 44 5677 7 6339
13065 -1.6585210128187269 3.5707324668132818 0.56437465256313601 16 20 18 0.57653056340398667 39 1812 44 2796 46 4560
12473 0.42479139591286985 1.8920127304651386 1.5925099521956143 0 0 0 0.17253662872784889 3 9845 5 5889
13582 -7.1987285836473784 -3.1515974413209746 12.067212950247468 230 232 231 0.86241397893912097 39 10311 44 7477 46 7132
12475 0.47492608924195689 1.7968458981384736 1.7285936829633739 179 162 154 0.37695978061518609 27 3949 39 7162 44 5633
15624 -9.5899598396944974 12.899804533706067 -5.5595548019288676 188 179 164 0.29519453388865535 38 12388 23 6065 29 6179 32 6140
12476 0.65304767987935197 1.6399604311116256 1.8518810631219509 59 49 47 0.96673152492131442 3 10014 39 7180 44 5643 27 3957
13069 -3.4265759983481501 5.4752881699167055 0.43066453394841619 199 176 156 0.61067817284819648 27 1520 44 2831 46 4561 33 1808
12477 0.35886886082556824 1.8068512562749366 1.7144036452366052 198 181 171 0.36608839704835938 27 3909 39 7211 44 5587 33 2071 38 5532
15618 -10.092129540058698 11.243409726161964 -4.0671086795380225 125 93 81 1.2849116231808442 8 4960 23 6024 29 7358
13137 -11.096922229742006 1.0378539721440616 5.7536883979134883 64 84 73 1.234782256140867 39 3393 44 3352 46 2757
12480 -0.096956407122612873 1.9817884328130106 1.4934163089095986 161 150 146 0.83125786387471146 27 3814 39 7293 44 5470 33 4760 38 5262
13862 1.2952833256549119 2.4360463467225291 0.64335359503757228 6 19 2 0.023177098674600334 44 3088 46 6711
12481 0.69132851687365193 1.4331736678665423 1.6962152389834915 42 31 33 1.6277321975443602 5 1785 39 7297 44 5546
13654 -5.4183811099069636 3.146771888377629 2.4213957184492445 38 51 38 0.38559247700400689 39 11371 44 7966 33 3319
12484 -0.0074847662550875304 1.8533510485067077 1.5821176949011266 184 167 164 0.53016725270313336 27 3797 39 7323 44 5451 33 4193 38 5301
13141 -8.7652074202182231 -4.2252987068525902 14.255856262185624 93 98 106 0.87853695613814276 44 3373 46 3452
12486 0.14821657405555111 1.6870324734064126 1.8686786345979975 149 138 134 0.50698872943279694 5 5755 39 7349 44 5464
16215 0.75607380153307024 1.3651948136667251 1.7265536633113479 124 55 58 0.49971792637487655 23 3839 29 3799 4 1297
13652 -5.3759821124845857 2.7504562182776255 2.8602356290689466 42 59 43 0.30733324152928476 39 8078 44 7916
12487 -0.12359813648585531 1.883805019652715 1.5284729380000466 106 87 83 0.56297220412947957 27 3769 39 7350 44 5409 33 5304 38 6410
13861 2.0279137603887891 1.5592378262734232 2.2716886119610931 50 80 40 0.039775237118811715 44 3082 46 6664
13145 -7.9896410937022493 -4.1105308200989104 14.031222347819437 99 117 109 1.3329587969585655 39 3343 44 3397 46 2767
12488 0.1048972987233505 1.7065255136003945 1.8431971987783295 166 153 147 1.4062917254062306 5 7502 39 7352 44 5455 33 2014
13870 -8.8771044805832151 -1.4056080598881757 8.9441804719919311 110 95 101 0.58158573644787492 44 7365 46 7490 33 2972
14171 -7.4595257912657349 2.9305774701008782 3.0927981732254777 37 47 48 0.68309046076163038 27 904 38 1077
12490 -0.29582067564042946 1.9069234910043964 1.410275136401212 108 89 87 1.3927428374476292 27 2098 39 7399
14888 -81.655200343028042 -6.1489480338253486 18.929691645654461 179 180 184 0.81401885265997354 5 8486 2 8280
15704 -0.21675672703589272 -0.22171928356602036 1.0075127935337287 185 192 198 0.53657013848348678 38 8775 23 7763
12491 -0.81855349369318253 2.2808414360613161 0.81698821128425703 36 50 33 1.4419026955967063 3 1288 39 7404 44 5274
15913 0.56992966547572477 0.5444218105867612 2.7906289213499713 30 35 9 0.90031427535510122 23 3492 38 11199 29 4113
13149 -7.7263840923565503 -5.3861626282539889 16.675267933711556 71 79 82 0.56589326514465599 39 5593 44 3420 46 3494
15906 0.81558709343722458 1.0787570983391206 1.6016340379971139 222 91 106 0.83731975076425291 23 4065 27 5437 29 3588
12493 -0.035973878226617087 1.6064035529721759 1.5362831759564124 154 131 123 1.3462230454693254 7 3097 27 3278 39 7485 8 1524 44 5324 33 5253 38 5212 32 9254
14883 0.11032694305332508 0.90177706964842175 1.1520613215810727 61 44 39 1.4261189115464612 7 9121 2 8176 4 4346 10 4184
15698 -24.018419468964442 11.003280335194049 -5.9858845403406296 114 119 122 0.66573928676692906 2 4971 8 4435 23 7582 29 8196 10 4550 24 3603 12 5009
13660 -7.0196911324072184 4.6818196541440491 1.2805566032184417 77 97 73 0.50592471103474956 39 3933 44 8000 46 5037
12495 -0.082033915771716329 1.2468181274641303 0.78977270275873102 105 99 101 1.0875743571784386 25 3262 27 1946 39 7723
13869 -7.6194750307929811 -6.495551149233334 17.317461251646922 46 66 76 0.72748428191852332 39 5733 44 3358 46 7398
13217 -6.9119808860699701 4.4246411735395856 1.3373030437627151 59 82 56 1.6817019636652422 39 3906 44 3743 46 8310
12496 -0.24164088671783399 1.2669484039309014 0.73048296180298677 36 28 26 1.346056591746736 25 953 39 7781 44 8188
13878 -11.073344209643281 4.6117857117621339 2.2145950894163757 187 104 140 0.49404070161156366 44 7638 46 7853 33 2977 27 3376 38 7161
12497 -13.297748123176023 -3.1468960469568104 9.6744004477296137 230 232 230 0.50190811597500884 25 4833 39 7829 44 6900
14903 0.56412841753099285 2.0134123074377994 0.57150049438691219 210 122 139 1.0600256933194359 5 4661 27 3316 7 3119 2 5158 8 2570 38 5237 23 7617 4 4790 32 7634 10 5421
12499 -1.0151948827044497 -0.042526622962825097 5.7260207545340807 40 59 39 0.95055609489253678 27 2813 39 8071 46 5334
12500 -0.16282542078803441 0.68090465823962576 0.74634968386233758 225 172 188 1.2783139131651151 27 6128 39 8138 44 7909 33 2827
13221 -0.26325189531054854 0.95163247912549431 0.60227021787426138 232 120 145 0.5757444412160363 39 3850 44 3755 46 5532
12502 -1.344792704739298 3.2969807707252281 0.63253901821207981 79 99 45 0.65532062881316899 25 1687 39 8333
14900 -0.049168264768928917 1.15562808513146 1.3854542084910397 223 222 209 0.20705936161755892 8 4659 2 8531
16295 0.44365895847915038 0.67605442125200466 2.2040387722530839 37 48 3 1.7428505817132696 23 3128 29 1422 32 2122 37 3892 10 1920
13732 -0.0020142083899023669 1.3238591210778734 1.2081540187657041 246 248 245 1.0779067279648895 39 428 46 1324
12503 0.56125713133581812 1.9263901778969281 1.5594172922301222 206 191 184 1.1419802833919941 3 9774 27 11051 39 8337 33 5727 38 10191
13877 -9.6559176687668646 2.2801775779664308 4.4714575127975555 110 142 139 1.8679854416738542 39 10652 46 7761 33 6499
13225 -5.1418288393965259 3.4462459402460728 1.7254769210860035 96 113 84 1.854273645680325 39 3907 44 3771 46 4993
12504 0.3884727991507933 2.0050965744684728 0.34931586639834256 227 151 181 0.70236503186472876 3 10581 39 8346 33 5435 8 11166
13886 -10.575568314400078 6.5515321088469491 0.86169668225979579 88 85 100 0.81195120382456809 44 7925 46 8172 33 6693 27 3552 38 12322 32 11303
14251 -17.865793304145338 13.771465834320368 -8.8270391019710033 113 124 136 0.58422330827997992 8 3005 38 3168 23 5064 29 4738 4 4547 37 3135 24 3595 12 5054 6 2618
12506 0.37552885220493137 2.048316808028404 0.30519546946668036 208 122 149 0.94703688155473775 25 6891 27 8791 39 8382 33 9818
14904 0.042671519091036919 0.81077855521200581 0.82095768696278959 183 125 127 1.3029974654270455 5 7054 27 10407 7 7707 2 5625 8 4166 33 7512 29 5794 32 8001 3 7499
12507 0.46028630500116485 2.0511434960538208 1.4014996346789081 151 133 124 0.74659290525910416 5 7840 27 7085 39 8384
15784 -22.666390025146256 16.262817152359091 -12.347826896213734 204 196 183 0.6324164304193941 8 5646 23 8127 29 8171 24 8804
13229 -1.4878125490685321 0.02662799360588727 5.5079502598238399 34 59 36 0.44310955164882648 39 3772 44 3815
12508 0.5401854332516165 1.9976444186562548 1.4683920156586707 209 192 182 0.29932608531505256 5 5965 39 8385 33 5719 38 10154 32 5214
15922 -60.381042088267982 6.6943349079831886 1.8967142367695295 132 125 134 1.3738593716961698 7 4655 23 5357 29 4448 4 4337
12509 0.36144582935743053 2.094266644102861 0.27395146351504857 246 208 226 0.2460908681239122 27 8812 39 8415 33 11174
14899 -27.109346527491926 9.0985109725330329 -3.2136563982095723 99 105 98 0.29922885907505475 7 7626 8 5539 2 8530
15778 -23.902282207345717 13.056852052366596 -8.7219751028356445 172 170 155 1.4252222808822903 8 5542 23 8107 29 6177 4 9143 24 5101
12510 0.51237443352845968 2.0932527505037211 1.3471441766281713 208 192 178 0.43990923692134765 27 4021 39 8443 33 3589 38 10108 23 6964 29 7107 32 5147
13740 -8.801262091668784 1.726610288498297 4.5579580105490205 233 240 248 1.5637165257423693 44 1766 46 1683 33 908
12511 -15.375416918237852 -1.3511440521717608 8.4170536066929476 209 214 218 0.6241004501459062 3 6255 5 8985 39 8445
13885 -3.9351101237631649 -0.071689618407982658 6.5644754751514212 216 202 176 0.54522221275171801 39 10849 46 8101 33 3425
12512 0.56473951089122687 2.0639153795221352 0.45412994285879754 240 186 210 1.3761703626159767 3 10291 39 8515 33 5601
13169 -8.3763882412932098 1.3823640369271553 5.3019950352236043 66 69 74 0.74191332884451799 39 2242 44 3486 46 3643 33 1651
12513 0.51577773546949091 2.2223280356071489 1.1596258380876667 209 204 208 1.2914061134641184 5 2604 39 8556 33 11199
13686 -1.4261646794432603 0.30477512881708801 5.2677226330806377 21 34 24 2.3743486992092526 39 11276 44 8145 46 8584
12514 1.5324970010512693 1.4854184448451828 1.3339373330313142 82 104 66 1.0886288751406226 27 4079 39 8607 44 6725
14195 -20.016660219005683 17.420162150280451 -12.469303930302539 121 131 141 1.7421539856456687 8 1718 38 1621
12515 1.5873391726016846 1.8000547220694378 1.3074407050128807 68 84 59 2.0058251433022085 5 6114 27 4310 39 8919 3 9829
12516 1.1573304520987782 2.5144866942018194 0.60175180076415147 24 34 26 1.6335391402620754 5 6462 39 9330
13173 -8.5232022026270382 1.4120690823209618 5.6135114880318895 79 83 86 0.71461140012431013 39 2252 44 3500 46 3649 33 1640
12517 -5.3073260483231488 -1.3259909057849386 7.5329692910241919 237 243 241 0.61190315831389819 25 4369 39 9415 44 7519
12519 -0.12436407125063013 0.70695912269954686 0.73361846477374215 246 170 191 0.68393592147361826 27 6167 39 9437 44 7937
13684 -1.4358004571518594 0.1808736625254275 5.438976933414791 78 109 68 0.19548110952697481 39 8095 44 8133 46 8561
12520 -15.566084706257225 -1.154116374127933 8.5365348663665959 120 122 127 1.2598514031436723 3 3246 5 9063 39 9548
13177 -8.2822911440783997 1.9899619690947672 4.562723345747167 166 169 178 0.50374368407470049 39 2460 44 3523 46 3701 33 2523
12521 0.14816344336780796 0.87142659515595311 0.87145851241191341 39 30 33 2.8966199656665221 3 7505 39 9577
13694 -1.4801627672393443 3.8210201257507084 0.3361412843490913 62 78 42 1.2858116367428005 39 664 44 1347
12523 -12.57565787138517 -3.4546905720726042 10.385042028776688 93 106 115 1.6235290489165315 25 4846 39 9826 44 6952 27 4917 2 2428
15736 -66.147727271288929 3.8293139896926061 5.4688872656022554 136 136 144 0.66879179723798621 7 9436 27 9397 23 7934 29 7972 4 8950
12524 -11.266981720980048 -6.7120508297720356 16.56619785246205 127 147 135 2.1478166721725502 27 5795 39 9883
13181 -7.0787036974762563 1.3747162197702238 4.8841620093884437 198 213 220 1.1697325363179991 39 3569 44 3532 46 2930
15730 -27.694128172718827 12.646087155187264 -10.396027593240488 119 120 121 0.59265308719939924 2 8324 23 7900 29 7944
12526 -9.6822274218915414 -4.2396089354594837 12.549800664183524 77 99 87 1.6691486583405031 7 10163 39 10028 44 7197
12527 -8.4998194150426869 -4.1394682620329908 12.852170911869649 210 174 174 1.9904578007719982 7 10305 27 5586 39 10115
13692 0.7974865457145518 1.3057622025386328 1.8654492710097057 165 169 173 1.8979332890069871 39 1154 44 783 46 1829
12528 -9.2213436013601928 -1.8831081550576942 8.9052660782064272 224 217 216 0.84919403232198676 27 5480 39 10150 2 5144
13121 -11.70152166434737 -2.5640289664359268 9.8983389347622754 110 124 109 0.87386076742486052 27 1863 39 3184 44 3208
12529 -7.4024517124238027 -4.5339741638060111 13.830219856233189 233 227 234 0.91490085315818459 27 12065 39 10181 44 7376 46 7460
13638 -3.5015969418558108 -2.5686237190190955 12.104108141033798 64 73 56 0.26678173449018566 39 5203 44 7836 46 8030
12530 -7.7295614246131148 -3.9437213171543757 13.708292734913677 70 91 96 0.88148108669733805 27 12205 39 10272 44 6643
14147 -0.034440020337467105 1.7262994290439158 1.6853395084479343 55 51 52 2.2875265625468924 8 226 33 302 38 515
12532 -7.103890762479363 -3.0779993510777368 11.808753172637383 124 96 106 0.23895274527179344 27 3069 39 10310 44 7472
13125 -9.9974358277909765 -2.2640490981646484 9.6551966317506306 88 109 104 1.6360227866564656 27 5071 39 3265 44 3276
12534 -11.672223639812657 1.7074984705496934 5.380550885775043 213 209 204 0.24370252139763302 5 5087 27 6049 39 10442
16199 1.4263391253530553 2.2644432216002173 0.9696002217102484 19 20 15 0.96320711493338251 23 2551 29 2615 4 1220
12535 -9.4182282562330517 0.071857969046024955 7.5940925741563179 219 212 220 1.4160909178924406 25 6377 39 10449 33 6526
13636 -11.366475795058587 6.7062833895909923 0.21093224962916785 188 153 150 1.7093527790466769 27 8318 44 7814 33 6570 38 12147
12536 -5.2384168203061945 -1.3462146862119881 7.8071113530657508 81 78 89 0.3487737293769837 27 6132 39 10461 44 7545
13129 -19.319495929017062 5.6913114709539236 2.0008160710510428 54 70 75 2.0007091564661619 27 5532 44 3318 46 3387
12537 -5.1157564275259411 -1.63416290755406 8.818492720311589 224 210 208 0.25925161521859225 27 3365 39 10521 44 7592
13646 -3.0845100531099265 -2.3934086648963366 11.786698548229827 187 150 144 0.35003710140606481 39 10767 44 7889
12538 -4.01840071278321 -2.0097983734145419 9.1508445907128131 173 96 122 0.9772520407307671 27 3413 39 10549 44 7640
14155 -1.2361467031646207 0.16536494428294041 1.5272409807518033 238 239 243 1.5550003807708421 33 696 38 763 32 249
12539 -8.1495543332651508 1.7177878137488429 4.6240340633944257 80 77 78 0.45701436615039748 27 5445 39 10673 33 11408 29 5279
15688 0.39503106348873607 2.1080283324485971 1.3308578717258466 151 132 115 1.4598691597662692 38 10030 23 6906 32 5082
12540 -4.5504746768258659 1.8826487722348744 2.8005018654406717 74 92 68 0.45260814338210309 25 5456 39 11043
13133 -10.232951798269758 0.05146561829557815 6.8170961221548136 54 67 76 1.9514549647074044 39 3364 44 3341 46 7464
12541 0.57741999588714499 -0.73593961177616973 4.2300006825626779 52 62 64 0.7291346270981951 3 2254 39 11087
15682 -17.537839601419389 14.420047380584686 -8.0256442607826664 48 52 55 0.93335502144099747 8 4695 23 6772 4 5891 12 6058 6 5754
12543 0.58096754311963483 0.55885824506470017 2.7342906964627676 37 44 26 2.0645434427062352 27 8691 39 11680
13644 -2.678070858281838 0.10280779646121427 5.171314105795858 77 97 63 0.45261845049483301 39 5048 44 7872 46 8261
12545 -0.21347350307863494 1.4870722842351485 1.1027796848432483 231 233 230 0.62117146248175548 5 2955 39 11848
12976 -4.1406034549852579 -1.7780487879898785 8.8210448376912201 188 186 182 0.63587832155078106 39 2221 44 2393 46 2940 27 1991
15549 -20.135062480988442 13.320038921724855 -7.9342804104254565 196 188 169 0.93730812094761284 2 5094 8 4569 23 5475 29 5592 4 5685 37 6643 24 5212 12 5066
12547 -0.03696032226877357 1.3711296310931747 1.266290009863454 242 244 243 0.41888572167645294 5 4428 39 11853
14002 -8.7721534918162298 7.1483779393257434 -0.22603440676852068 74 76 84 1.2014735475727931 46 3171 33 2651 38 4778
12548 -0.15761570438271608 1.4800527385452176 2.1357266094646161 170 157 149 0.76894196290732753 27 11783 39 11963
13495 0.41861369266158727 3.0673857811338765 0.3636292086180174 15 24 19 1.579717044285023 39 2995 44 6158 46 7241
12549 -4.6873621937995145 4.4679581364484866 1.1116781617211644 85 111 74 0.70025428929107336 27 8850 39 12006
12980 -5.5506084786095853 -1.2575519491265428 9.2125974258565257 204 192 168 0.92976868896748499 27 915 39 2230 44 2402 46 2921
12550 0.58202311508962512 1.4384851478676433 1.6377100465910979 153 80 99 0.025077112029621061 27 2427 39 12262
13489 1.0813638075861025 2.1697473979247635 0.95971442066670998 19 40 9 1.3116230787236163 27 4195 39 4346 44 6098
12551 -0.037469792178635219 1.9413128157086483 1.5415245052540787 138 130 128 0.6751635891085247 27 6825 39 12315 33 5382 38 9825
12552 0.05383749286258948 1.9309617349824661 1.5570665949885789 111 91 80 0.54327331693012393 27 6858 39 12356 33 5438 38 9878
12553 0.43655848311352874 2.0557356025621645 0.3308500910726368 222 134 149 1.1184917060849884 25 3611 3 2446 39 6950 5 4575 27 6686 7 5606 33 5490 38 9526 32 8020
12984 -5.3211388193416838 -1.2057390106423111 9.1688403749723726 197 187 162 0.55699089534693258 39 2241 44 2413 46 3740
12555 0.11758448089856036 1.0044144858421284 0.8960396476298883 168 103 107 1.4298832598652866 5 1558 27 3102 7 1683 39 7811 7 577 8 548 44 8208 2 743 23 1372 29 1083 4 895 10 1653
12556 0.48301437875500669 2.0960911476095787 0.33363712311452598 222 164 175 0.65404944468760362 25 6964 3 2478 39 8497 5 2847 27 3749 7 4992 33 5537
13503 2.0013642400026646 1.6235848771338826 2.0389926574278308 20 32 18 1.2474485569284821 39 8960 44 6423
12557 0.71124874521608494 1.2594755712573806 1.5064292909760533 125 41 52 1.7910327930625958 25 5309 3 2360 7 1848 27 2803 39 7385 1 4875
12988 -6.2537780530776477 2.1908344806631974 3.3814035723952522 42 58 48 0.62369424883722402 39 1373 44 2426 46 1579
12558 0.49878893811666569 2.1841594559557596 0.30246249133908171 216 160 175 0.6297679917831458 25 2935 3 1318 39 4468 5 1226 27 2537 7 3133 44 4260 33 3893 8 4864 38 5146 2 5124
13497 1.7038167699430293 1.6840400843752841 1.455483008842263 30 44 26 1.5550310780081098 27 2479 39 4357 44 6219
12561 0.61056766639528715 2.1525132050922848 0.45138406299682821 211 158 171 1.6256637701279046 25 2926 3 1297 39 2824 5 695 27 886 7 685 8 852 44 2896 46 4239 33 1202 38 1984 2 991 23 1601 4 1859
12928 0.74950245708735441 2.233170652210358 1.1249662089449928 197 188 181 1.1375233961698052 27 1546 44 2045 46 6382
12562 0.44507920740422729 2.1169374605954863 0.29470099564190738 215 131 146 0.91184594360513638 25 6972 3 4865 39 8493 5 4613 27 3738 7 10239 33 5513
15501 -40.756987535357119 10.122872547233351 -2.9530165029887283 174 169 158 0.57486231650654884 2 4889 8 4347 23 5270 29 7703 4 4401
12563 0.44030140969958126 2.2994680371714065 0.25308653256322589 213 164 183 0.58697101867835222 36 3499 22 5448 35 4027 34 3734 43 5835 25 2316 1 1198 3 708 39 4440 5 1321 27 2549 7 5078 44 5773
13954 -0.75527531563783767 3.9049643211511018 0.18238788281151197 60 81 47 1.4784640205326791 27 775 33 762 38 3077
12564 0.31647098905738158 2.2134714034621754 0.22297674274317678 232 124 153 1.1977789305284268 36 10278 22 5383 35 5218 34 5366 45 10389 25 3707 1 1776 3 1623 21 7016 5 2835 27 6712 39 8492
13447 0.27146638002346302 1.9628693827643893 1.4955001537005745 191 174 164 0.12215878962065052 39 7141 44 5598
12565 0.62508577123758902 2.1569111551729003 0.47933063723525049 194 109 123 0.88133602094178454 5 1505 27 2585 7 1889 8 1867 39 6762 25 7080 3 2577 44 5811 33 3527 38 11471 2 3297 4 4826 10 8609
12932 -5.7936869751479216 -1.5962353839943026 9.0255595554169084 194 176 143 0.61488441306954555 27 1963 39 3445 44 2073 46 3637
12566 0.50574701696676028 2.0585932815001855 0.38078504075302727 216 126 138 0.97837023744625307 25 3640 39 6900 5 1756 27 2649 7 1839 44 5660 33 4067 38 5143 8 1825 2 3381 23 6325 29 6456 4 6016 32 10988 3 2465
12567 0.37207788188448015 2.172687414911568 0.24459885278433793 237 157 182 1.070745532581354 22 8652 34 10058 25 7011 1 2668 3 2490 5 5172 27 11042 39 8496
16006 -59.760737368290471 13.070754603624442 -7.2049669854835603 214 216 213 0.42660759009924232 2 8316 8 7408 29 7690
12568 0.48110200598127983 2.1853354737864414 0.28956351684298715 213 124 139 0.61327961778899798 25 3714 3 2531 39 8584 5 2808 27 3790 7 4366 33 11038
15499 -23.344739365969765 10.720680302060444 -6.6625301236128731 77 92 87 0.71491954452414408 2 4896 8 4361 23 5267 29 4529
12569 0.56901506669432866 2.0878337854210258 0.43486896213671228 212 113 129 1.679587606210881 27 1415 7 1860 8 1329 39 4488 25 2964 3 1624 44 4257 33 2077 38 5207 23 2775 29 2851 4 1844 32 7564 5 862
12936 -19.573724700267302 5.2663873952595921 1.7547129743911418 85 101 98 0.92486910801182842 7 3202 44 2191 2 2636
12570 -0.34571124690024446 2.7064638526710652 0.59042832792453259 18 32 18 0.36590299613041433 25 1595 39 2772
12571 -11.393019145850735 -2.6392218387068418 9.5458303952457548 145 142 147 1.8197980140175569 25 4896 39 3160 44 2144 27 1853
13962 -4.5665378262382141 1.8551223675055588 2.9684431389296759 30 39 36 0.50695362071799499 44 2466 33 969
12572 0.10571623639892579 0.94301090299143397 0.91608128185348636 46 32 34 1.706806108041212 27 883 39 3942 44 2602
13455 -3.0721828698684055 5.421992580637534 0.4696532231297546 85 92 61 1.4895811966589063 27 7264 39 4402 44 5692 33 9175
12940 -12.69010821486955 1.1517990599001799 5.9297518908285616 43 65 62 1.1231194276699352 27 3150 39 1499 44 2231
12574 0.6256581011025899 2.428326065095971 0.64576772540149807 49 37 44 1.3586377095013091 27 1523 7 1993 38 9970 2 2032 8 1230 44 4376 4 1932
13449 0.31005002848346591 1.9756861272444888 1.5003225723453388 194 176 162 0.16125074053160277 39 7115 44 5623
13906 2.0597897836738248 1.4955585902458928 3.3436232384136466 76 97 58 1.7251065792719278 44 193 46 372
12579 1.2254589266373139 2.0023067599156623 1.4594899641557824 110 100 101 1.3809632534123613 5 3369 39 9685
15309 -0.25139022170465553 6.6043828568038601 -0.32502230229146967 17 20 13 0.52917515541468607 38 2092 23 3659
13399 -3.3104701898098168 3.7267205037972788 1.3779465560204962 30 57 24 0.43011652461835032 39 4764 44 5183 46 5577
12884 -4.3539286527376051 -3.3795227389406999 12.754875499346786 37 44 50 1.8448051198189539 39 2207 44 1807 46 1652
12581 0.54610728085813331 1.0294975017710699 1.7289207785879313 246 115 142 1.4567050441523941 39 17 46 32
14279 1.3737183549861738 2.3246362667231861 0.80738090931660822 92 124 50 1.3397285941024011 8 506 38 3640 2 1403 32 2062
13393 -0.31934175475467341 -0.54181722344229211 7.7788780253542695 60 75 56 0.14220321761772967 39 11396 44 5137 46 5466
12582 -7.4318138058851204 1.6462341643430478 4.1124501483248492 164 159 155 1.8356799546687772 39 25 44 34
14272 -11.503947825865282 10.54121940425518 -4.0570649394158336 228 228 226 1.4105125597339192 8 2866 38 3451 23 4798 29 5000 37 3411 24 5464
12583 1.0476987275800829 2.0482598505954344 1.2549855757513353 0 0 0 0.33824113361217145 27 16 39 31
15297 -50.521844314097251 20.912196563481412 -22.184313136268578 161 150 156 0.83785646568993999 2 2249 23 3361 29 4336 24 2382
15958 -19.091602710767635 4.5691205552249272 2.9834059762824374 49 53 60 0.27639907787574297 23 5716 38 11616 29 5787
12584 1.2230572648024722 1.9809629217535387 1.5055881664402457 130 119 118 1.7310136183431912 39 61 44 54
15451 -23.264087974021383 10.1459320000777 -3.5322197659069379 205 205 179 0.71234000728969493 7 3183 23 5054 29 4746 37 2579 10 2161
12888 -4.7900197700669711 -0.76154556291327169 8.2778067075881552 103 114 117 1.0581166738399961 39 1417 44 1818 46 1605
12585 -11.492574433164755 2.2954150870343235 5.1049726336551737 184 176 178 1.4092240428223355 39 45 44 59
16331 1.0238284964337747 1.0602654216098342 2.0253685095381022 18 24 12 1.8121531776477717 23 3593 4 2097 29 4034
12586 1.144847587245607 1.0770677643851936 2.6266306423119063 169 149 150 0.80634961219377321 5 400 44 79
12892 -3.3207294721522009 -2.0394451097118598 9.8127112111450963 220 214 198 0.19522606110557086 39 2256 44 1829 46 3001
12589 -6.1969868407965114 3.6027677639852951 1.8812228891184883 76 101 69 1.3294501046159657 39 85 44 87 33 161
14287 0.79663702191214214 1.3230486902343306 1.8369962055313422 28 25 26 0.69691036846087051 8 794 38 4047
13401 -5.1302478710615098 5.1648341993183911 1.1232886836003426 64 96 59 1.1162961561365461 39 4719 44 5190 46 5520 33 7295
12590 -11.042266869412058 5.114110023413029 1.7378509789325669 208 206 202 0.98919001894906411 27 107 38 309
14280 0.65335710385077306 1.9853582097084717 1.5169377960223036 197 186 180 1.001856869383136 33 2386 38 3805 32 2049
12591 -4.8589336688610478 -0.91409058831990952 7.5739259624786888 214 208 192 0.17380294837997334 39 172 46 119
12593 -8.1161375357870185 0.70711356344820919 5.8754351187169629 59 80 71 0.52805694031918315 44 95 46 55
12960 -6.8965700975965714 0.70413745735497102 5.6574330835455324 209 195 182 0.90612476223507399 39 2244 44 2352 46 1661
15533 -63.148073875094418 6.387179207221215 1.1208181264609292 177 174 171 0.50421733944439184 7 4620 27 4626 23 5394 29 4412
12594 -22.235287761768017 3.1285408868868818 3.6310077564827949 62 81 88 1.487483757640681 27 90 44 101
16348 0.081214389959063965 0.81456550924636928 1.2393034062723443 163 67 80 0.61111715333820771 2 3392 4 2228
13986 1.0782080075337952 2.6539610590214946 0.36976214408131797 52 67 43 2.2602862699800834 44 4591 33 2309 38 5620
12595 1.2553623114214323 2.2135330746592303 0.89188923387185037 38 53 34 1.4912773488633166 39 114 44 114
15325 0.28174362188403279 1.9251357124893274 1.5638447656071945 153 136 124 0.57041499343859015 38 5455 23 3943 4 3372 32 4129
13479 1.4527884078669624 1.5139245104138259 1.3014780568743802 23 31 20 0.46345368315829294 39 4472 44 5973
12596 -12.805798892993401 -6.69218455817456 15.87664767739361 227 223 222 2.176781260901846 27 171 44 122
15318 0.50529698161832437 0.64092824975392815 2.3290657660343519 93 92 37 0.69850727628431597 38 10144 23 3868 29 3757 4 5166
12964 -8.828203519362825 2.1773754504828386 4.5299720670458523 210 203 195 1.0947311003632427 39 1412 44 2359 46 2900 33 1653
12597 -8.2989243106221053 -2.2724369356552367 10.588594864878214 62 83 78 2.0499824102276434 39 224 44 130 46 198
14295 -0.83199714999066854 1.0048747145243984 2.2337689907691591 87 109 52 1.4789357160103112 38 4257 32 1150 37 1949
13473 0.60173123428696018 2.2759269598119851 1.1110157730822827 205 98 124 0.72730978149840741 27 4087 39 6745 44 5906
12598 -14.571475309208074 4.1911590096302787 3.272383853196521 53 73 74 1.5265701777061904 27 188 44 132 46 110
14288 0.35318662462422984 0.65475015740073528 2.023168544651321 101 124 64 1.5909516234099936 33 1942 38 4073
12599 -4.7818115635685317 -0.50909017545405577 7.9142765600387088 75 99 75 1.3389599692257672 39 94 44 142
15313 1.398593834482083 2.3442503660178544 0.82750296427604941 52 68 32 0.37061354794817786 2 2943 23 3712 29 3921
12600 -7.0686993963397979 0.92760940362521216 5.5917366670374733 202 158 145 1.6565942159243361 39 194 46 148
15322 0.38458493818555656 1.9799437802093889 1.4914421011278716 153 135 121 0.25059757452969172 38 6424 23 3913 32 5145
12968 -5.5056674347726622 -3.6112520977585691 13.47958398318938 157 122 126 1.6461231851300138 39 2191 44 2371 46 1675
16347 -77.586728549452189 10.312184082070926 -3.314687825989199 198 195 186 1.210125817808543 7 4594 23 1482 27 2191 29 1732 4 2195
12604 0.95397491703018344 1.0818183653007265 2.0464640648949737 33 55 32 0.94894489349436117 39 143 46 235
13487 0.92143035215713676 2.3167476869524006 0.85904141119018473 148 159 172 0.6353055838455659 39 4339 44 6074 33 2258 38 3991 8 1161 4 2796 23 2371 29 2418
12972 -10.590769427123799 4.032679491939172 2.6947210787979361 69 91 78 1.1196183290428123 39 5094 33 2983
14303 -4.7330298882077448 3.7902357570156253 1.6556502080415574 89 127 70 0.35167705882730232 33 2767 38 4494 32 2691 37 3032
12606 1.96787644176015 1.5297754581477234 2.0350793904728488 80 118 68 2.3344307611186208 39 160 44 190 46 252
13481 -1.3850553250263702 4.6901114720266914 0.082653187299010833 54 71 27 0.79039016387619621 39 4215 44 6002 46 6325
12609 -12.174665387365437 1.6001795085062178 5.5002266318142956 42 57 60 0.87010256974381761 39 151 44 222 46 135
13040 -0.73626148354930898 0.36606054544068017 5.4622664124435927 51 66 56 1.1290877548503402 39 3902 44 2667 46 4796
12610 -7.1235330469527716 -2.9581698162035059 12.056029575516833 228 230 229 1.6846791759068711 39 316 44 226 46 280
15613 -11.089197847978495 13.142582784295069 -5.7965273225766305 137 94 88 0.65931862979631872 8 2799 23 5970 29 6084
12611 -3.7532542623192957 -1.7416607154408594 9.1180156762385529 185 93 132 1.25110943469253 39 488 44 239 46 292
14066 -7.1060770336569012 2.4626703541203621 3.314143631422346 89 120 81 1.5197438517224047 27 3374 33 6654 38 8747
13559 -7.3593404595522323 -4.6539089251529679 13.891542565085347 150 97 123 1.0247602369351452 27 5174 39 5672 44 7366
12614 -0.87338824844839391 0.10220175681451005 5.6646652620265554 21 27 25 1.6744894453918373 39 297 44 254 46 322
13553 -16.276565499396618 4.8642313543699895 2.3291639362898224 42 60 63 0.44429336854103002 27 5118 44 7350 46 7449
12615 -0.38474642168706152 -0.35509487971048931 7.5748874978978948 40 47 40 1.4873803772501635 39 305 44 261 46 434
16118 -0.29200214940325492 0.62166617995636442 0.72839585069589785 220 225 228 0.95635374439367837 2 737 7 1099 8 246 12 561
12616 -2.6625016062248545 4.1516553792526798 0.87911355258281565 46 51 48 2.0423847047790979 39 150 44 273 46 226
12617 0.50354043759544753 2.9824783445122938 0.37129029376981981 38 62 15 1.7307584016516506 39 168 44 304 46 377
13048 -0.65630498304730378 1.8588116267162103 1.3352855354328048 139 125 116 0.94460957196166917 39 1207 44 2704
12620 0.028206876086417042 3.0742771551403991 0.2378527247368227 29 58 14 2.0217229021964074 39 162 44 314 46 682
13567 -13.531209108068721 2.6626686893738363 4.8875582288881363 34 51 58 0.68714572295051701 39 3439 44 7384 46 7488
12621 -3.993929698729648 -1.3068375177262626 8.612356353529508 89 91 104 1.9168992212053937 39 521 44 336 46 479
13052 0.80302190164627263 0.84818363572742628 1.9696152844133989 66 88 49 1.1386282202744824 39 2593 44 2744 46 5236 33 1212 38 2131
12622 -5.2395896319084843 -1.1076287576248927 7.578898396815422 172 106 130 0.98744684856133313 39 308 44 349 46 491
13561 -7.8841974018691552 -2.4566581806591956 10.259400063658191 97 121 97 1.75656498469637 39 10248 44 7371 46 3489
12625 -6.1522219818772497 -1.131680475763156 7.5468952682446844 190 106 139 0.68861072119875044 44 359 46 503
12992 -7.5302080849629505 3.3732320572535159 2.4867614094848305 96 122 90 0.95926065610435973 39 1340 44 2439 33 2556 38 4674
13350 1.3678475962920167 2.2085967565981952 0.94644078203800552 46 66 36 0.66334818613167379 39 4255 44 4558 46 6650
12626 -7.5399788017307641 -5.416082268442266 16.58483323494643 92 108 108 0.72256120511612953 39 773 44 360 46 522
13859 0.034953027886680588 3.4176190816792387 0.29675020708971905 21 35 18 1.0997414501791272 39 6287 44 6112 46 6481
15565 -14.920893046864098 14.578076215860358 -9.5582381015504705 125 80 87 0.74449410521867065 38 6717 23 5589 29 5671 28 6541
12628 -9.1690706519137155 -5.8091886698243655 15.701044511364969 208 209 209 1.5214039206756473 27 359 39 756 44 374
12837 -10.723059160319847 3.7142073278381553 3.1909799002240455 81 97 70 1.3513325412340849 27 1960 39 1395 44 1566 46 2600 33 1682 38 2685 23 1910 29 1973
13511 -9.8429076036100085 0.46230080211095476 7.4806953167297827 190 192 189 0.37525385434273306 39 5398 44 6693 46 7636
12629 -3.5190422955596565 -2.0207200241411098 9.2784721246965685 190 96 132 0.36620331099878256 39 491 44 402 46 813
12996 -5.3697621030759892 2.2548814136032482 3.0004869583795744 28 38 37 1.700730881203097 39 2368 44 2465 46 8157
12630 1.9220081242598226 1.7593862612137665 1.3604567747788194 73 97 45 1.1835843282374601 39 353 44 412
12631 1.385293681159615 2.0381431334733433 4.1147602836598773 37 45 34 1.7043512055852221 5 10787 44 421
13348 1.7941698612522612 1.6041706176834287 1.769722982701522 15 21 17 1.0149785137685037 39 4374 44 4526 46 7246
16070 0.52006747562565858 1.6841596369736933 0.71940748402189891 222 141 156 1.6527249808834645 23 2797 4 79 29 2868
12632 1.2510356536387626 2.0870555809665294 1.3466908759121219 38 50 33 1.5362654304628993 39 372 44 427 46 1114
12841 -12.533938589387235 -3.6581300095254234 9.9161719065700122 118 118 129 0.87732134504746606 27 1029 44 1599 2 776
15563 -14.185876633059836 15.119056966445919 -10.407084540630239 222 224 223 0.78493820012371973 38 11629 23 5578 29 5659 10 5896
12633 1.6790132167851139 1.4413872550711637 1.882580794621026 86 113 60 0.33956644649237322 39 663 46 1959
13000 -6.9640477532870149 3.4326995616299079 2.5518747738554599 30 46 44 0.75143602206475313 39 1328 44 2478 46 1552
13358 -21.86721840232962 0.39684097594439494 6.9883168645547338 215 208 202 0.9845648181017177 7 6149 39 1959 44 4788
12635 1.6374526842374377 0.90802196409372005 4.3199214214982247 75 101 38 0.70304007613059905 44 443 46 667
14026 -1.3117256014310041 0.021507745363049585 1.982297854747781 176 190 199 0.63368503775596308 39 10629 33 3217 38 9183
15400 -11.48721776130906 10.592253116582459 -4.1678787250624989 216 212 201 0.20276374159828769 8 2873 23 4805 29 4994
12636 0.64797878064779857 2.2468385116916996 0.53928338343867843 223 169 193 1.3817126577067629 39 378 44 447 46 681
12845 -10.705191445215219 -6.2134467890261531 15.389929487408008 64 85 86 0.84845432252091613 39 1986 44 1652
13519 -19.112425762729014 -0.68216709711202073 8.4854602725434169 132 149 165 1.4102630581340125 27 6139 39 5963 44 6938 38 3248
12637 1.6329455656893759 0.97811227628181852 2.8379924213084879 39 51 39 0.36108185778901303 39 401 44 448
13004 -5.7854712858040322 2.803026849763421 2.8477081069830659 55 76 57 0.79756075688192507 39 2404 44 2485 46 5110
15394 -10.242883698578567 13.772250971629315 -7.2593363055855571 197 189 175 0.10278073717580104 38 3509 23 4766 29 5030
13513 0.62832865547008332 2.4608136908501574 0.62613847023884295 220 186 203 0.86018247534366377 5 3281 44 6723
12639 0.39516968810198977 2.1863090779098866 0.25307563782234699 231 159 186 0.42486449171345009 39 267 44 458 46 665
13356 1.628935237416351 2.3356724413059933 0.72934906710578218 45 71 43 1.4923130349758598 7 1240 44 4714 46 6849
